513724.4208543204 5272458.930280505 147.0 153.94975501352485
517678.4669036826 5263123.244481984 209.0 284.3249838138743
517471.9913400341 5260159.388242023 360.0 307.88704534574646
512779.94440676225 5270543.270588623 164.0 191.55388350372218
519437.0881777421 5274245.5123410085 43.0 45.42960111849692
523085.4038377145 5259128.740875128 0.0 0.6529687876816579
521837.5672160863 5266309.811262338 0.0 29.03541657040988
521184.0732871516 5263441.855600963 0.0 1.1744294771211758
515608.70164894604 5273347.113387406 51.0 67.75929712437518
514730.9593253418 5274020.623396047 54.0 94.29639447862748
508647.9426071479 5273376.355747984 595.0 653.6379335397625
506681.10409566946 5263291.137557998 29.0 37.56640369450423
521836.5822148069 5259490.41939919 0.0 7.4848973712847835
513015.30506826076 5262070.409758592 251.0 234.5781775566038
507580.30580386653 5268028.502459254 416.0 426.39356497096094
518543.8961945624 5260200.047100372 205.0 251.29611986700917
521128.69259308686 5273213.367843346 52.0 49.15092100525216
518695.42501979694 5272731.0706690205 68.0 72.86560126573377
508355.5010602502 5267612.479570792 579.0 509.7465341667472
523128.72824773187 5261115.505247265 0.0 1.980862813333273
512925.1201142593 5262049.708657793 234.0 249.24446274807835
505825.8920114277 5261494.24805713 136.0 143.5745827254321
510727.62992921844 5260512.050677147 160.0 147.92675959875848
516033.3467210341 5265012.177558456 480.0 412.75082107649064
517673.37622127286 5271783.798594232 191.0 187.1110951371947
520806.64973066543 5258969.961233838 53.0 67.06546363354454
514630.1885967658 5270041.854371125 86.0 98.87980286972687
514752.3574372045 5259554.67516135 242.0 286.3841276633532
506642.75398795475 5269760.237219411 218.0 312.7860328424277
522727.8776178716 5269553.923818122 61.0 75.7731960263865
505244.7393071184 5275009.845863353 772.0 770.702632584607
520531.6538287469 5267995.088561062 38.0 28.819728423925913
512839.79283948615 5270343.617006498 135.0 192.18460117220914
522899.2406075797 5271662.794864969 148.0 118.4568349750908
517022.95139581396 5260510.396740418 435.0 385.4964847179792
510149.1553848573 5263290.453811377 57.0 62.275038237974094
519092.7869529193 5270287.486771394 60.0 60.280194075281614
521658.2949659145 5272479.4232194545 36.0 38.41321084492416
507029.78239357274 5270542.2534412015 493.0 370.49855810082204
516923.1991399683 5262319.011273278 444.0 425.8713892956645
510575.7279166643 5265712.5310642505 73.0 92.93715836105103
513303.4912534096 5271091.271431488 275.0 224.26517387648732
511609.1329917928 5260323.571116985 110.0 135.5437287424521
522967.34165122785 5272243.833319062 77.0 94.5935622516096
511638.5404486878 5266007.432719108 4.0 44.29035744771578
511802.5375870318 5274693.413412382 131.0 136.29360024341938
511781.16618517606 5268439.882966658 172.0 186.05514752373318
508073.0336426516 5271807.293039778 717.0 717.4586685390665
513174.28708042356 5270848.414683934 271.0 223.64205633167916
505960.01049475744 5274227.207391419 780.0 746.3015219130201
518362.13481180574 5259528.890716355 125.0 218.37228116276944
510144.7303084213 5258831.351192293 222.0 251.27841502549964
506215.2870413454 5270128.172191752 276.0 295.5973605156944
518968.9647542691 5270570.755430374 60.0 63.770917088339615
512927.25222573534 5260898.593095648 83.0 155.01359503769098
521687.4658075959 5268525.307078471 25.0 48.78910152692
519554.7438824199 5258502.1180936005 301.0 177.06055270549322
516881.2017265584 5265297.412850643 345.0 341.2636347728161
521961.00579164096 5265773.077156591 27.0 24.991714109350884
512571.0760457504 5273473.23289003 218.0 204.1174620535809
507930.56335385767 5264214.30165066 52.0 52.85386088726047
509026.45520773396 5267014.060410353 360.0 389.54263994785083
517226.52762379136 5260460.675259866 428.0 372.8475860294753
515259.1348646706 5272083.2089485675 143.0 144.31014693182436
510697.96663490735 5260002.8038294045 123.0 190.07397100040384
511966.56677398004 5266705.844607224 53.0 35.49538993657676
508281.2468388292 5262506.370285613 91.0 77.69302978259368
508263.9256766679 5269899.245434562 592.0 577.3308951672209
510691.28001609613 5268043.156722121 325.0 355.9759193496898
513609.7411515064 5274095.723978366 101.0 126.29089324562871
512977.32249585487 5268440.526139557 226.0 160.7195463299614
514695.94787640247 5264275.264380746 588.0 528.9823428466542
513468.25265824096 5265117.393853074 219.0 329.8913616167985
520240.4415309753 5271602.891027425 56.0 69.63831649275163
505759.7553461744 5264431.432257374 17.0 55.80544566668352
506711.7270348357 5274725.933042923 638.0 744.9991426729397
519003.3310943892 5265956.64189757 29.0 34.63084784141369
505980.5934502782 5268108.512434473 156.0 188.2438935032699
522577.52151144773 5259205.268284972 0.0 0.11660222123382345
516107.74014290684 5259691.663916955 397.0 414.0060572955761
507005.41115877946 5272163.167209098 733.0 720.0456338383394
508490.9966241019 5261571.532228512 137.0 151.1935178617873
523067.48149530776 5271335.064216248 164.0 122.15703409480331
505044.782061304 5274455.641753774 759.0 782.4244440563591
519562.673018974 5264305.24838873 74.0 73.72695697622724
509798.9932250071 5272166.943983354 546.0 515.8863002288024
505964.26635630196 5272549.241717699 633.0 734.4168216031046
522555.29574476276 5268977.039172094 159.0 117.98915175932801
517683.5239707578 5271303.66075995 190.0 189.75061355121025
521449.36858509475 5260006.731733589 15.0 17.749293144959733
515117.77691460855 5259386.749240389 437.0 314.6707091484416
518109.20219018334 5272200.190779034 90.0 112.73418201736713
513670.97808659193 5261715.894695295 280.0 261.1906082318643
519479.89951146377 5262489.857959653 71.0 78.68041757349498
505690.09692369256 5265315.657303915 179.0 155.19311367556338
521226.1579287088 5261830.255751332 5.0 3.0754398727734
509617.9105261768 5261317.29948053 66.0 118.20038392380853
520551.646050277 5265977.12284005 0.0 0.9180750392737635
522914.85915744415 5262733.268044376 0.0 1.3467522133368215
518365.44500821736 5265264.492609758 73.0 87.65331713242362
518174.3829430031 5264417.9501448795 137.0 171.5617380391108
510676.13458877493 5267621.286546561 366.0 352.8414332526474
522396.23342899553 5270563.622583489 51.0 52.31221850072217
521911.9929914261 5264285.461127358 16.0 29.860234165511958
511251.78576684947 5263982.228722512 167.0 152.25190937128966
514959.6195571775 5263098.161338435 572.0 570.483685762316
521029.42233262665 5265285.195913626 0.0 2.2630423037987932
519079.03358329745 5262698.012201578 101.0 104.51750838085503
505964.7421091146 5260212.670642742 281.0 269.55864688333844
512455.14393209753 5274751.978823185 98.0 133.33100546658352
508189.13613840664 5269247.096967583 583.0 548.7343449566183
507403.70298258984 5260471.834391683 336.0 296.9797337637886
513978.7661987045 5274592.064005412 132.0 93.56612688856447
513224.3407411734 5270562.927351366 255.0 206.39437561195356
510383.72473249235 5264543.117792976 0.0 18.270284465868254
510014.4894840723 5266076.189672357 183.0 176.01273833110005
508708.38143735356 5265292.837408852 72.0 104.56321232615046
514258.97075170337 5271200.078574486 212.0 177.89829213999272
509442.42040099914 5271740.129500672 780.0 655.3767683066918
515055.9905377356 5275087.763030117 136.0 72.42703670550854
520510.53045944846 5273108.727530641 58.0 58.16070494959099
509171.0788479942 5260674.224856654 91.0 151.39948968520576
507237.2925447684 5272119.770425666 762.0 712.3911457369692
515699.1537978133 5266756.092498933 170.0 102.58700756595968
519881.137340173 5269052.99853005 45.0 41.779447755505196
521069.55682779045 5259570.301150714 7.0 30.810900920126304
515389.2956238364 5259623.160825688 476.0 368.264806743181
506762.6127890296 5260502.1314512715 231.0 284.72758589883586
517610.7067407763 5265585.890480159 171.0 143.33334116666063
510597.75506965216 5263812.10658172 82.0 73.27988489401044
508899.2197543818 5269651.2452421365 725.0 682.9893681306871
507712.24314684625 5271838.158682374 701.0 720.2455271281532
521412.75269683334 5260120.0742566865 19.0 15.66825616672856
507628.65155137226 5269007.820499374 518.0 466.50864421971613
505457.50296526466 5262276.512546453 56.0 46.64100971446094
519533.47615941893 5269966.787574683 51.0 51.607471700754004
522968.3109778217 5273470.900068491 56.0 46.344029863889034
509966.7153382763 5267332.150265147 486.0 358.8969204732785
505396.2968707833 5258501.361177826 230.0 223.26424627045841
519650.39523729356 5259064.203108284 173.0 179.17725037745763
514826.3883994235 5264704.024915986 505.0 462.89447871823336
523274.91289285896 5266757.090738275 26.0 17.912013743272166
509881.94423608005 5266430.569811272 290.0 210.52986014056236
507074.2660110146 5274303.1678206455 686.0 728.9417447342729
514462.90813526453 5263143.697460595 378.0 536.781398762659
508454.72075106396 5264352.210823629 30.0 50.72234592325842
519458.0574256508 5271847.811328451 138.0 133.8490943457449
515899.3068925856 5269860.674359123 59.0 103.47104293111998
517669.75421684 5258980.399027936 260.0 260.03011947877803
510770.76538085745 5272041.712961597 449.0 468.19825405445226
514237.00064879365 5263597.802639054 583.0 537.8969481374808
515969.54761387606 5267060.7553033475 59.0 110.52651805527758
522022.4422512705 5261304.127440616 0.0 1.1627477242032076
510925.9372265737 5270096.741902735 380.0 380.0217100869211
521676.13492548733 5269193.242479699 38.0 62.5397855818308
519119.1252413853 5270032.925482451 57.0 58.1165615467574
517383.53849661123 5260015.925510618 298.0 338.40310981566114
520292.7885417498 5267668.92317357 33.0 23.879421688795617
523212.52692635945 5264755.912672603 70.0 36.56480851506023
517782.320284834 5263894.905864572 307.0 210.63357120584288
514617.07064393646 5259876.528743143 205.0 262.3176910001675
513168.0495753461 5271865.472252371 183.0 184.64581875839815
521253.85764722485 5265014.101688546 0.0 9.53535406769691
508785.3417532062 5268257.491130145 593.0 565.3196154405499
517808.8388451736 5263568.580929056 180.0 257.8193992403486
518386.67352115945 5268005.3505467195 0.0 0.9941381892762772
519374.5579979563 5265285.338615723 21.0 38.941018317349595
514379.8625520081 5261057.896225207 274.0 303.81655885481246
512900.58938763343 5261224.905781699 107.0 155.02108278080865
521573.8656980314 5272457.496424501 37.0 37.83458270541324
508549.1235592847 5259640.041289458 123.0 224.86396138177628
505294.04087160237 5263716.774677058 30.0 24.275901458845603
513926.9652922061 5272890.207857779 111.0 141.84000596771773
505933.990521439 5269978.687782641 374.0 296.8724680000647
507747.14933115494 5266529.004948518 454.0 424.05135824730985
517989.81804258254 5274274.454469321 41.0 52.54750683243852
515015.76364656293 5269761.173496893 110.0 80.26875301095934
513841.76983962615 5267523.345896609 0.0 20.840360215771593
521047.4838063159 5267328.438889471 0.0 24.85418714185799
518365.9765592144 5260119.939866316 248.0 229.86421858213717
514549.9641667736 5264759.783934731 396.0 481.8655393663005
511378.0923218832 5274580.0540006105 147.0 153.47895675889325
514312.51086243213 5264079.600518119 560.0 534.686834986842
516909.55423200416 5266631.250601112 84.0 116.74126203148813
516288.6455249012 5264341.556314588 431.0 456.22516688136375
510929.71311258455 5262044.199062597 71.0 72.64998375157072
510049.9123786495 5273443.000292076 368.0 312.65308532656957
514437.0985277565 5275062.572567681 60.0 93.9650732873777
507970.64910344064 5267519.050072768 526.0 486.89480706416623
516037.58752701036 5270089.805594915 108.0 94.99247226256982
522325.74659978045 5272463.304640104 39.0 50.18946718364552
511852.9613942454 5259045.670968894 216.0 230.6561608440418
517479.7936939232 5274159.553577546 41.0 45.00114030968047
510525.4258641993 5271866.422614868 505.0 527.060375559336
515041.821249011 5274644.762982866 49.0 83.89527011689698
512671.67202983197 5274144.4370086985 158.0 166.42935217556237
517491.5365225866 5272166.251643215 146.0 143.1078671189293
508053.742237397 5270206.017759281 478.0 587.0446416867837
514720.25868155254 5266414.715899917 213.0 124.61991072563696
506659.9841771599 5267657.166947962 328.0 361.62083961619936
517450.91674867744 5259453.049349823 282.0 287.94919100573634
505559.50228191 5273222.3053805595 830.0 808.0868270897228
507510.45283074613 5269307.365203103 343.0 477.1065237838246
518232.3017429309 5274029.058554509 45.0 50.60137071313222
517056.2097378008 5263113.784943438 412.0 361.209123130272
506441.3325257895 5265578.701653166 292.0 207.02656992811333
513654.58527267637 5263656.12662386 577.0 575.4765700895387
508500.1857872359 5274701.623753826 409.0 497.29128201812824
520844.8200438682 5270286.642220481 56.0 36.872462469937766
512466.06609061104 5272283.633829527 254.0 259.229143114549
520060.3923581561 5258976.500941011 102.0 150.41373186851126
512930.95061996987 5266359.149255645 4.0 23.59787873777777
511290.47509375477 5272550.216388738 310.0 304.2242373086728
515640.54199856037 5272446.239613616 122.0 118.5012568026594
516431.51169340836 5261228.487768918 647.0 660.1901537282985
510857.8004145277 5265006.995612642 20.0 29.327359445846483
505187.3358413138 5267029.44033166 108.0 101.9481555956521
505862.8067895272 5258724.559773897 191.0 214.83620583705405
508498.6851858716 5262655.974171693 48.0 97.18722501702138
515417.1649297312 5265527.900414737 207.0 362.25298850099244
522601.17344436 5268212.275909905 142.0 143.3453409550039
519120.99514975003 5262135.387451784 102.0 107.96850003413512
505106.9972256717 5267507.940611899 84.0 97.90032449047715
518673.68051581073 5266063.257926798 29.0 45.943126992608036
518925.5366542404 5270393.804287034 60.0 62.36657882908857
512583.4336250985 5259989.909571299 193.0 205.54791801304142
514766.57978062634 5265411.595704656 319.0 366.4600330935675
519503.63483239897 5263391.332276275 62.0 102.42249808360621
515761.7314487638 5273729.096634018 51.0 67.77726532117359
517083.3241655993 5270229.47757891 91.0 76.4696073229069
519199.1047781839 5261518.411316091 203.0 141.39815361207437
519123.9455476379 5263554.438679783 132.0 99.06061466371638
511554.468021305 5268864.627890735 199.0 186.0601682055631
514437.1927257377 5266454.696163533 179.0 134.81371091442944
512115.0377247751 5272323.429821686 280.0 271.8083787827452
516845.1279992051 5264282.938471413 278.0 405.5548510585043
514867.02041622053 5268033.724344868 0.0 15.815058408637537
516298.9532319959 5264883.837097785 503.0 427.94902649251617
512366.7061921374 5258904.952210646 257.0 298.99313036829756
511065.06483434513 5266238.929862944 67.0 121.60358902641346
515581.77282986726 5264926.603223359 383.0 414.3753678329604
522184.1272192195 5262034.917646776 11.0 1.9762423369058202
519755.58425493713 5274566.973814746 38.0 46.607738713008246
511299.3301298811 5259615.651782322 301.0 188.8173288885034
521810.78424046317 5273394.280361612 33.0 44.495814169913416
510374.07942221436 5271963.272774851 563.0 525.1010480080001
523034.17698691745 5260479.245676904 0.0 0.7585192160776668
509559.7572704072 5264276.464498897 0.0 8.629415366901027
516268.8113431062 5271490.333908181 174.0 203.47943971312182
512532.99365719233 5262085.817995845 252.0 250.2934149781493
507287.9002534827 5271235.440589344 529.0 581.2595786232396
520698.2618163687 5273353.727140183 53.0 56.27304638187864
507708.0993457845 5268164.472126998 430.0 433.4653423394155
507457.4144238542 5262078.674949863 171.0 118.40401178450486
508867.6294868017 5269849.897200981 718.0 690.0063580401832
514309.76559507643 5269288.494746431 91.0 69.4325423916878
521399.66510820546 5260011.990604124 18.0 15.531898093447161
520382.0889559096 5266434.047839373 0.0 2.27259482528991
519314.6256684258 5260777.282275151 150.0 154.11799969912047
516772.5582351673 5263490.728224737 503.0 478.68046207409463
506765.8901258044 5260893.482199286 304.0 237.91767814301218
507003.6924625536 5271357.064953792 502.0 565.5016954492246
513788.5671131869 5271260.16692176 200.0 210.77000718972243
517959.93308058707 5270321.137155178 98.0 92.1201256178656
517053.4492635391 5269232.358747219 8.0 15.603681682584714
506125.57279329543 5264724.830660826 12.0 107.81130186097025
517953.4696500122 5261005.245975024 345.0 297.74052025400425
513220.3036793829 5266485.535197169 4.0 26.26750282387775
520992.716750363 5267966.37965538 33.0 29.390885913750864
519970.42271782784 5260222.309506895 65.0 108.13535920865496
522630.0654876083 5271235.915874903 106.0 111.74920397523114
517527.5702103473 5261567.203228452 324.0 346.241601395618
514731.47910977795 5271323.212997138 177.0 183.60765976384803
520185.393187195 5268980.299840941 49.0 41.456111879027056
513527.4519100732 5270028.190139088 246.0 178.61882131383553
518990.0232292945 5266943.8827419635 0.0 3.2482965550992007
505489.0836691075 5261459.612392521 83.0 108.83867426461762
514998.2162415781 5266863.991504172 63.0 77.30241638386309
507595.1502575741 5271014.284233485 612.0 603.4608916672308
516228.0997944405 5264400.467428304 457.0 437.29290468655796
522659.8460651672 5259366.178352012 0.0 0.07423743679368175
506701.06991961057 5274289.328200218 768.0 721.1178068715711
510254.8636445644 5271825.619860863 590.0 537.522775930197
520378.2371845011 5272539.641769955 68.0 70.6055718069289
513833.7904283673 5274811.207137829 98.0 85.35992110886204
518471.0702502142 5267342.146924051 0.0 0.9866280120046033
519448.4349020751 5264086.680144943 73.0 82.64563991774027
509457.01164292404 5261655.380420517 115.0 148.2453034166633
510268.2078243592 5267191.481586908 372.0 336.3178936378964
517505.5114302367 5268473.407008592 1.0 11.721127164323176
522343.1231901481 5261122.3080533175 0.0 0.6048826660834468
520077.2354938269 5265041.766256216 14.0 27.613549205687256
516171.78915561974 5273612.372194855 43.0 44.32647689071618
519686.7292868111 5258981.370359842 184.0 170.2700095662679
512401.5423612786 5270032.043040811 147.0 195.08452545110265
508195.1717206828 5266624.607310994 382.0 426.9773481356187
521392.92833558196 5272319.244065905 38.0 40.988574227512416
519821.41920335166 5264374.602558762 42.0 66.14719571314669
511793.31751381606 5264588.35868241 82.0 154.19806794804984
522535.7126116202 5272412.23625151 46.0 49.49113265294913
516807.62377368135 5273772.39007528 40.0 61.51417606343917
514492.7338039933 5258868.561307901 268.0 322.5050221629933
521553.09216067725 5274427.193502263 37.0 44.91996927996698
505376.064584931 5262271.944504094 45.0 55.025381705642744
518506.8080985799 5267956.391191671 0.0 1.2116329297354267
518624.9722231313 5271218.072763916 107.0 105.70193481831318
518392.33588188514 5273332.976327412 58.0 61.55640302206931
510489.2196086029 5263008.296252047 83.0 76.36416776193958
522222.5442587601 5266004.942493522 18.0 27.91572412440233
508146.76266348833 5258418.78292703 351.0 303.57726240785587
505447.75473217 5261399.502132942 104.0 91.50973037094921
514653.5488606345 5264002.423808648 631.0 561.2635505397654
520341.42368076526 5273303.662736168 59.0 59.22701322551364
505203.1370632039 5272984.022319542 921.0 772.0128488000837
517672.6633944624 5272472.333819655 108.0 107.68991065446507
508332.13931248814 5269868.09547704 593.0 585.0067327707172
520761.3558421089 5268454.584464433 44.0 37.90661761039992
510653.57202707505 5263063.843074316 95.0 84.4485758321778
509191.96545637865 5265390.807016874 117.0 111.28219410671933
519481.00336306053 5259783.422311455 109.0 127.88855943586056
510463.5375162811 5267773.692445348 432.0 356.3104468566507
516042.23677269334 5267950.9942312725 0.0 9.741969358441377
515107.4266366414 5261355.7109286925 509.0 533.5405820526723
521936.61918582354 5266468.675756464 31.0 20.883395971576036
512147.61817625427 5267442.276408875 136.0 135.03477638212584
509369.15994474833 5261913.74978205 211.0 114.84195206871958
511652.3056301549 5266498.751154548 45.0 72.78368533055755
513655.7370126504 5263614.785496646 580.0 572.3003580571894
521865.5974590038 5269310.41838275 60.0 58.00288886427062
505931.00616319 5260818.461892567 251.0 193.65425033674995
505152.1138996029 5267350.386342906 97.0 94.19321778839975
517069.9660026316 5267077.130624658 28.0 60.90553920891639
512925.6736323636 5274688.472544525 87.0 119.05794549509926
517434.4556298964 5267895.584176977 0.0 5.152380917997625
520732.9897972408 5267234.614991367 29.0 15.520088062941223
513211.1087998059 5266187.446896117 42.0 22.839890052113045
522365.4425103937 5263449.993044199 0.0 7.208221682089103
517557.7265309487 5266383.424750765 86.0 95.99707550363658
519389.88637330855 5260897.097629143 121.0 162.3298377003974
522347.71707764716 5265022.8667604355 30.0 33.89774658124649
512037.5294874613 5274826.8794876775 132.0 127.16555626650383
513531.31678552 5267192.0431350125 0.0 23.965157614234293
515097.7330768557 5274390.726780862 55.0 77.47536838440101
520722.2642723175 5266254.218249963 0.0 2.4752837316039122
522247.9996883786 5267269.768489653 13.0 24.61924843985363
514613.36365319666 5263348.379978932 499.0 542.3741428973497
510459.1917862859 5274412.823329203 238.0 214.35074293035154
510413.4608336115 5262944.853110554 69.0 83.78204327251275
508682.2308900293 5261611.810636353 164.0 136.7181378628001
510928.8166944909 5267118.571902047 279.0 284.8470783418709
522860.5045878944 5268986.933770361 200.0 114.85838767176944
517235.97918438725 5269990.988562052 50.0 75.80878075475538
517061.50812654925 5270074.919106731 73.0 74.06321997674806
505201.9913357752 5260270.303112245 106.0 186.21342452993133
523000.87354507635 5269948.415104079 41.0 64.20810736156689
512552.54607988696 5259404.164633778 292.0 311.5884949468215
510488.6370191709 5268766.45801947 346.0 392.25617422310296
517743.15716580005 5273068.92620565 68.0 64.57699227183616
515903.4097848118 5265213.29460377 342.0 364.77312518247584
513362.6131191117 5263992.4941443475 534.0 501.5607708208816
508432.4640923594 5273192.597703381 707.0 628.9129464488041
522420.78434943425 5264071.25756742 79.0 26.933332252324504
510361.3470533397 5271358.711202606 529.0 516.9846114237847
506260.6924622291 5261043.188318156 183.0 213.42480889836494
506253.4546446838 5262721.770025757 63.0 54.07476993406609
509959.548949378 5272367.7529192045 448.0 503.09373051581684
514591.42571636516 5264538.86456824 502.0 480.2346698128941
512719.5324607769 5263889.75051928 333.0 364.1195433264952
523002.57517546345 5271155.3398434315 120.0 138.61532277737484
509734.62951233616 5268660.479948098 484.0 522.2136075637497
513157.1788733169 5272802.347732668 235.0 196.49991927906856
513548.7443968345 5263254.661703796 514.0 509.04131849954274
511258.6594658751 5263724.352340756 215.0 152.50485448624974
520003.83952761564 5261002.565735795 44.0 108.74580901176802
505340.25166711345 5262526.9044347145 19.0 58.28407058929913
520342.0427516249 5274951.456888623 44.0 45.99570794900357
507564.53952812497 5258750.823581549 362.0 283.65151075847774
514796.1756588581 5272647.076527372 101.0 103.01071961403719
518177.9442643912 5272437.045447921 79.0 91.39182256191235
506748.06147595757 5266344.012054801 352.0 335.65176270390054
513967.2421140268 5264832.738614352 345.0 440.6391654322151
505571.6631074299 5264015.305890675 9.0 29.130196132821457
506691.2691274078 5272053.722960985 668.0 695.9030101824387
506075.0876008831 5260079.426264621 315.0 260.4813466485166
513608.66710952995 5268914.242337777 86.0 109.42843271534558
508624.9764382642 5269981.869201521 689.0 668.0864472478901
517413.068289277 5272864.627617553 75.0 77.25439407626645
508664.2402001759 5266488.618305567 309.0 348.13189680605507
520323.50059253274 5265930.371056226 0.0 1.7361638383856113
511914.62383073877 5268700.22555927 148.0 197.14457569932418
521707.4012714137 5261446.573298738 0.0 1.6808511191351254
507942.0825126339 5261537.124309787 148.0 142.79327168118326
518557.385559582 5261328.921829734 201.0 238.74718828632342
521958.98618325655 5265159.980862368 17.0 27.05101147753671
510523.57010533795 5271437.054908608 448.0 529.0257911832529
518443.0273620471 5266954.01418041 1.0 4.963584712864346
505946.88241411373 5258394.842667336 176.0 214.8466804989659
512729.7914655552 5270191.438705446 196.0 171.52623286348324
516572.4951349188 5263357.878118632 571.0 489.422149997595
507624.41576480557 5268076.180006856 425.0 421.4545111512036
510396.1725973708 5262142.110950163 52.0 85.25741172186473
517182.1491915535 5267694.846433237 10.0 13.490605566178372
522680.1108833271 5271734.664301317 112.0 122.50956677393634
514185.8979864295 5262599.8045531735 301.0 483.66434647072555
522978.9170134746 5263328.129406475 0.0 5.326909048741529
506052.7276348363 5266624.433943403 226.0 253.72944805881724
522394.35968392505 5268413.973636722 75.0 112.37427195738127
512121.60329420253 5266701.884523964 15.0 50.48951587766548
509840.5933996284 5274227.367492015 344.0 278.94460665893746
513252.1196994606 5272079.211032715 152.0 193.87093730712078
510541.2331029986 5261546.715435442 71.0 89.12124570061472
507701.88679389097 5273729.633845463 666.0 648.4727448425144
521983.37069415406 5275117.627986421 56.0 46.59526007191729
514545.6050266542 5269267.861686806 28.0 79.08123211745753
505637.7477513556 5259852.724460293 278.0 211.83638166199492
516088.3028592112 5262858.463292588 725.0 642.1709952472231
521675.192741014 5265173.892991285 22.0 15.952260602951629
508550.4393377779 5268920.969035361 638.0 596.2433997632332
521507.1006389493 5267010.59934952 26.0 22.279911408132772
505211.79322275496 5261679.496493475 62.0 102.45440497201614
509344.21857964224 5265637.478408759 192.0 116.22326796258852
508788.90330200054 5272804.7217298625 608.0 664.6520920198186
516322.54346545675 5268201.188519403 0.0 5.532398655282407
513721.7337228397 5263317.971356384 490.0 530.8072670726767
513189.62888498476 5274880.797758938 95.0 104.79724942204037
512700.7948309577 5272351.108550336 263.0 239.68625139471547
512764.32666030555 5259771.872472151 247.0 226.65396715737816
511305.573271983 5264480.406093204 4.0 107.27989659129132
519091.5249542058 5264146.294785714 98.0 93.43799049145743
515144.19928093057 5262003.302025925 601.0 629.2466239720098
511189.56563631434 5267586.47496862 260.0 270.4205371398078
517062.08858036617 5265970.560692669 146.0 197.2865774604903
509758.11992822774 5264135.115033742 6.0 12.199195264143555
511876.43203406985 5274868.374957234 118.0 136.22432659930246
520289.656659544 5269417.982157852 50.0 44.71905238984615
512580.15499097534 5265006.418946915 271.0 252.86259464842732
518502.2007613907 5265000.312211066 78.0 94.97853223956793
516234.4933876512 5265717.544381743 242.0 288.3902636513405
515465.895018496 5264025.720484575 662.0 537.7349226362206
512513.10523573734 5266729.141390127 0.0 38.398016493572214
509373.15932576393 5270681.993927396 830.0 739.8027753258268
507958.76669352135 5273650.078077434 686.0 648.5518581949747
517865.68063959805 5273313.986307632 58.0 58.630704120484154
516291.28522925643 5270892.618189246 237.0 194.65703660350687
514530.1777103152 5274348.219066139 72.0 96.12876761000632
508109.10983510007 5265565.975000588 212.0 214.14570008548205
516223.63339891314 5265108.319399536 482.0 422.4372798894465
516648.08008211944 5271279.464222052 219.0 219.41032854854694
522296.6632270913 5267893.971699735 67.0 74.91641134090301
515836.30741795455 5265196.019742325 344.0 363.2068867718812
516099.16130949766 5261296.4931622865 741.0 726.7515124483599
514123.1133614291 5273789.327656303 136.0 117.40538949261666
519331.4548313171 5263168.224320978 106.0 93.49960444316885
508802.250555597 5275025.849596666 394.0 450.19443311374687
507143.5509008253 5273072.781309202 813.0 777.52283796776
515948.9067954845 5274370.617339341 186.0 151.92169809942288
523137.4802366493 5269276.982770003 133.0 106.86934982991207
520556.295065316 5271859.812898088 54.0 51.9640383182413
520185.7126706141 5272424.309281449 81.0 71.65314061666919
509793.23733887164 5271219.477029731 814.0 751.5189132031119
510267.81351044815 5265461.1063822 64.0 79.05658397383522
521557.962135823 5263059.400478249 0.0 2.0374013508820346
515123.16424148856 5258496.603468619 222.0 332.5745157504075
516400.78606521967 5265612.96299958 304.0 290.1241144353389
515098.8210823297 5263344.769003226 628.0 575.7992397646364
521420.6316428153 5268650.666090875 0.0 45.93375337047149
506741.50757735246 5259013.062890259 202.0 214.44898543896213
511503.4781303527 5260007.233889357 155.0 167.76385079506815
519770.8443289405 5270239.286112965 49.0 50.25018851748256
508533.2709082598 5268233.527826309 551.0 563.0303680774614
514296.9782536594 5274018.054382255 123.0 115.58731350164312
506250.653323349 5273552.488353691 836.0 816.9686366281621
509865.3199364099 5267999.393632396 584.0 432.3450337489472
523337.94188121334 5271730.580641802 186.0 116.70657942534372
511482.3994331782 5270983.342815332 304.0 317.03961160673373
523171.307500027 5269708.850578108 61.0 72.84226740932588
507442.2898700523 5258515.177238382 285.0 307.39300736072533
522263.7341802397 5265661.389762011 38.0 28.17831233255324
519266.1887602725 5274975.42153467 71.0 38.75939381015976
507274.49123682256 5272913.449145086 795.0 781.2015175780257
510908.473212922 5270802.952884429 370.0 426.65506494170717
517059.7164683295 5260350.390359254 375.0 405.4895383811139
512180.99679910654 5272720.596138789 261.0 265.88874759699144
521912.5435870029 5266646.318608124 39.0 23.198592792820623
519415.24390005926 5264285.472389579 84.0 74.31014911517703
522725.8766281248 5258617.4603686575 0.0 0.6207481992564249
520025.69921611674 5274153.57328014 48.0 48.60734368986988
506194.85741614987 5259656.389380628 322.0 238.40394872331814
520581.79454830906 5259172.719515395 67.0 63.629365905856936
512595.94745766785 5270410.576931584 187.0 181.839278299293
518235.95330232265 5271880.773798711 137.0 134.14854686163525
518607.78116899484 5260908.103583516 213.0 252.03323970577486
511492.609406237 5268721.578712865 164.0 208.01431760235576
514948.27890123887 5267560.758195076 0.0 18.787616403398967
507419.07249326305 5266387.336125055 437.0 418.46952453606923
505157.4298539083 5259558.35410428 130.0 200.1570216821802
522767.51975829306 5265209.625511836 29.0 37.794783481588
517525.5490513788 5264595.07771607 216.0 223.749736485984
509455.4413123205 5264378.808272309 0.0 9.665694149756652
509789.12516398914 5264776.359716116 9.0 43.84871591090742
519427.8429355888 5272610.068194493 75.0 85.46229403360736
511467.08764206176 5273275.903032146 254.0 266.5725180704451
514347.065295191 5260792.119493148 264.0 287.33503223220896
517504.9639422224 5271333.791839231 218.0 179.70588941014248
515742.1077054626 5261728.335061859 871.0 679.9898986291199
523244.3711741833 5265955.223610375 38.0 30.21601618288762
507954.38218739955 5267151.013743798 526.0 470.0529869511748
511788.81025606167 5261071.429110336 105.0 105.30198000174899
522471.2023927064 5258706.30122988 0.0 0.3416611076910931
506137.5793775591 5265749.6851752885 282.0 215.0520606729739
505413.3858456234 5258353.390837442 233.0 222.8975992860281
523232.299149944 5261073.3460359955 2.0 0.2197646427783669
523141.69330746843 5263476.822161556 0.0 7.753774172422686
512870.249597018 5270846.856755009 229.0 211.88435208131608
518815.70323022315 5260689.49281341 276.0 231.46000738989505
513855.99593368336 5268199.776881666 28.0 72.61750973069928
514348.1749126578 5258988.743636587 327.0 289.83740608906703
508857.6403541754 5260380.933444566 151.0 154.250964297622
519736.073001027 5268000.559806748 13.0 12.570134183492764
507143.1146293197 5269129.7624191735 404.0 411.6761255429897
510999.85629697866 5265448.317983881 27.0 50.60902241041701
512708.71461234405 5260313.0147242285 160.0 183.67081021714245
505463.17751641286 5260923.247505126 200.0 161.6015312517639
520932.2101341746 5272512.808026563 48.0 51.279510086325665
519011.56680992723 5273989.683820408 45.0 44.09177579759954
509684.56409217423 5261101.27592071 95.0 102.95466383092605
512774.5236326357 5259226.292777626 373.0 299.7589819713585
505230.3207181045 5269728.324134382 315.0 280.0671891306854
513741.08553309634 5268333.038313162 85.0 40.64994965609657
520982.76826813736 5274865.2898505675 42.0 59.93016475361546
517757.1412941473 5266068.120798061 85.0 112.45511155098849
508964.6406902291 5263752.081883145 0.0 24.77105443281265
511705.9688275508 5269221.0630729 260.0 220.27111384081803
511257.8798506011 5259169.611729002 260.0 263.0917552398583
523056.2558885378 5258391.791255374 4.0 1.9416440579431928
511715.6051146782 5261563.280833539 65.0 128.82567278921746
506188.6485369511 5270115.733169648 295.0 279.04057802692165
513299.44990822335 5269299.062701393 71.0 163.54529635770774
521783.80784716323 5267189.982647891 29.0 21.934513507848827
510005.9185142809 5274749.2765655685 291.0 238.44181793558786
522387.35541636066 5267196.872426872 15.0 21.911938919945534
510591.0148410186 5264467.447731713 0.0 20.06970615879016
513972.7147392988 5264199.081320014 458.0 513.5036487485717
523103.6109385529 5265608.317820531 32.0 35.2418366254041
513811.59890688444 5274931.041862206 73.0 99.77620778777107
518263.7182203876 5274991.611611228 51.0 81.02002774814402
511479.74939032434 5263400.667450705 235.0 168.74491629907746
505469.8651842315 5267445.608032644 103.0 105.82146558226316
522237.30374487437 5273243.783545066 38.0 41.420026980683616
507697.608609481 5273925.491094348 600.0 668.5696589693578
522504.0305221519 5270049.47711639 28.0 49.43897660823857
516228.514678601 5273574.278137537 42.0 44.821042661859565
517124.45191696426 5267694.703412516 14.0 9.958985659632548
505910.0841186678 5259038.466739141 154.0 221.2076947282305
512454.78466344386 5273992.972210219 195.0 166.20625445935306
505805.8925630937 5264981.121360361 122.0 117.0232619456624
517604.78026301606 5267703.770557743 0.0 3.4021191937265973
509653.77111398964 5265624.368628796 119.0 137.66360473979952
518670.9156358936 5267094.591880628 0.0 1.5904681646258443
518993.4448132747 5274134.667134582 42.0 45.80970165908841
510127.87391133007 5273137.954114534 286.0 391.6057997095381
520020.3919441615 5268166.420617032 26.0 25.69061099682416
506609.6349967252 5259112.911546114 224.0 206.70140755142984
511286.4621974732 5274251.23466327 233.0 174.0165899193171
513659.6840949979 5261774.844437683 262.0 278.5627100862853
508474.7332495727 5270830.704537335 603.0 623.4995398525716
518356.23690714635 5265548.097280693 64.0 80.56277787381333
519493.6650799873 5261477.388313624 137.0 149.21385762054385
511172.05153317936 5258948.303747692 316.0 240.0409183099731
510407.06382343057 5274168.946665127 214.0 239.00340274699542
507875.83477006777 5271016.514439904 636.0 637.6612523278595
510506.29905069707 5264764.485692075 11.0 8.777339438710266
515792.08663899824 5272045.018851461 101.0 108.20842011173704
518330.28575672983 5260578.357884934 316.0 258.42208401723553
514388.8762939982 5268850.089798806 30.0 58.4146836029485
516084.0713943667 5270874.564804969 219.0 208.368307117841
510463.9455058856 5275094.481354762 184.0 195.3773502252703
510612.4354134709 5264714.259461623 0.0 16.2213412126333
511620.4193514296 5270578.81707492 245.0 289.23994933391776
515766.3212820124 5272004.964544889 105.0 106.50744357413282
518077.67778150307 5262999.570032894 192.0 203.64812243200674
509024.83332458616 5261055.007484474 170.0 163.52016685838115
505504.93958544923 5265028.335769042 71.0 142.87926054349958
513316.5407499 5260059.353066057 203.0 185.5813218624167
508355.0977800512 5258974.021968769 176.0 266.0616285410693
511175.8747566653 5270541.570441463 336.0 368.1751040375376
510609.2929311677 5262536.283906513 93.0 69.8784610485854
518949.0656797112 5260398.27492671 303.0 222.67955412182178
513923.5848132983 5273594.234280469 117.0 137.61172070212697
511773.136674445 5260383.368732806 108.0 134.57962958337114
508071.96111452195 5264119.372983229 31.0 56.64457446102669
509900.29037713696 5258440.355811559 339.0 289.44663841515217
512659.6170574813 5270869.530856626 226.0 199.3274415070015
516695.65766765596 5270216.335024419 50.0 70.52113172941273
518701.0822979284 5260323.947148822 298.0 231.21003700506932
520150.5277766924 5266844.419884406 0.0 9.63185860573462
522616.4946870187 5261077.590779586 0.0 0.8287109135372445
518230.3335046766 5269348.095584209 74.0 57.920711959764134
516628.6837541901 5266249.543737557 177.0 186.48894006645776
519828.7034187403 5265583.644974688 0.0 19.776066029190428
508070.24711363437 5258628.914223028 330.0 305.5055844018676
509631.15687605314 5267683.47508712 380.0 483.81285792542093
517931.9895590441 5260124.062367933 250.0 256.22904905641667
512398.22272051906 5273958.168995802 167.0 190.9108295553641
518220.5522596952 5267251.512257698 0.0 3.2141437922556833
518541.16278932476 5271200.919203657 114.0 103.70126118039829
521992.69380131434 5263693.284130764 2.0 16.133687893036218
519798.7893016663 5262671.903245025 48.0 73.4147713591952
512117.6377739471 5262469.860921139 216.0 241.11752496272962
516586.80492167536 5268986.022298266 0.0 17.03925722890971
506489.9607176961 5264151.8356051175 0.0 40.512541385306335
516184.7711120463 5259029.506436557 408.0 390.9601534687194
507812.4727172576 5260389.356939311 343.0 283.32304653069565
521116.07327389886 5267893.733344674 30.0 30.68824389817069
522729.12365898676 5268226.029045921 174.0 127.92826318867588
511698.94156195415 5272283.053891438 332.0 291.79151967674744
508970.34152084147 5259015.493755565 185.0 197.48121947492976
519295.0076439587 5259976.700275678 96.0 156.81146629471723
509273.0062845078 5268151.9521131115 614.0 557.922958692136
515638.47792206303 5260486.387321528 678.0 510.3256074910452
515922.91363296204 5264590.158386104 515.0 435.0503287546885
523269.6837520297 5274699.437252053 54.0 49.99999999999999
514684.77277927514 5260720.338150815 292.0 309.80283338740696
506286.91717492417 5270267.905508237 240.0 306.6060482671363
506749.5763078679 5270281.018392304 317.0 340.68231411911177
510263.97062518273 5270774.301421232 574.0 578.7929563831174
521144.0127767863 5274068.156682071 38.0 46.56138416660973
510362.2128581083 5272308.427478486 462.0 487.70970131673056
520536.8601985047 5271722.688169926 51.0 48.79677740226253
510277.2917307577 5258637.418872058 209.0 262.0685019629553
522731.91428670695 5270556.254076288 61.0 60.413902866997766
521545.4460066039 5272716.471122947 46.0 40.17570497891539
515565.6726569588 5271802.802905418 143.0 146.28468859759514
511104.51458746905 5260009.474900817 232.0 166.91274711640676
513181.97725779464 5258400.989587111 531.0 481.3969645933584
513800.99447595386 5258303.449812343 542.0 487.73196322417056
514698.84695857513 5263564.945958729 608.0 583.8535750395081
514574.41477197356 5267509.23401166 0.0 14.996842059719851
506494.0039340672 5261383.442681562 271.0 184.09358573010977
519328.7659932644 5263386.312486579 110.0 90.18468858727347
522552.39691263996 5263246.307971532 0.0 3.9386720035976297
513507.34671917104 5273238.990587683 201.0 170.69243643759054
507170.70670247416 5267244.468889245 444.0 402.0771702346818
505827.74709316524 5272761.177403261 693.0 719.3512183082188
520096.2696491667 5273380.260848589 62.0 59.80924060897131
517900.89454323775 5267518.243768227 0.0 2.0845321753541257
519215.37977007905 5265411.733602229 38.0 35.96791019093846
509063.2499097624 5268396.403791662 588.0 588.6842749900243
518216.04011063697 5265249.01095989 89.0 83.61540757421587
513327.0557226999 5264488.28197539 473.0 413.7712703198173
508869.53324814484 5259108.606056093 183.0 194.54509246375022
517783.2360514809 5273394.662714504 53.0 59.950146505153356
516967.382596928 5273026.972865279 63.0 64.97633604961499
523103.6661870037 5263764.88441869 12.0 16.474043895874615
520042.045908362 5267679.319059629 30.0 22.856946294357456
519671.70599345845 5272653.869628235 74.0 82.06608978449152
512190.91863855225 5266024.387089766 2.0 51.714474753913855
511154.10551447625 5263875.080950973 161.0 164.33116902637687
507140.1293180515 5260342.430481473 300.0 300.7297326724347
518762.15237272065 5259279.097181758 203.0 219.0585337683474
522517.4589629355 5273373.353848978 32.0 44.82581296747978
519268.2740154479 5271855.449417851 137.0 126.77992339882199
520809.7679889199 5264759.643248102 0.0 19.22886824031719
513851.6043752803 5273115.179515332 120.0 149.29018254542248
506415.52249650424 5270802.830940789 316.0 326.81048659694494
509339.90931298153 5259392.282876114 252.0 207.76309728432665
516149.5381940816 5261390.781288619 734.0 721.6257480173153
516386.2426486008 5259282.619383198 403.0 383.9366383572096
506261.47159878 5262936.702994722 40.0 56.510495585276395
517100.4230970444 5266500.765887391 103.0 111.49379258227673
505170.04525339446 5259990.614771274 145.0 170.52282452782296
508435.39973827713 5270702.894573394 601.0 619.7587014671776
507537.61564455705 5267073.538688696 483.0 445.8974618374487
510505.4243671129 5266907.453197263 225.0 300.0769762425851
508172.41470196226 5269570.883504607 450.0 571.5207813286099
512443.7479305024 5269725.752841057 193.0 179.3156977963488
518706.60452646087 5271061.7673135735 67.0 103.27318333467868
518544.3285941891 5272915.058620374 64.0 69.22729983102936
520991.39138906664 5265167.831899769 0.0 2.336968651971894
506793.5659722826 5262768.137298579 53.0 64.9032537709779
517060.9989505019 5269306.514727285 13.0 12.287179972098407
507439.21741287265 5267563.259075415 492.0 427.65104380502487
516920.5877910918 5265839.427081516 209.0 199.87260158080903
514126.0547008548 5264347.53955822 498.0 494.5085827101865
511642.84508956416 5273976.500315261 260.0 183.03510161840558
510357.85162404 5268682.620120206 408.0 353.2193118982317
510362.94724776095 5265194.292845685 37.0 54.429132042780125
513026.71627489326 5270432.972594945 190.0 194.17593200764327
520092.3802223309 5273178.024862389 63.0 60.90223679567658
522309.37495656544 5265379.495683322 43.0 29.477812395137615
522348.5814543248 5263179.5064711375 0.0 3.8897669705892604
510735.35304913484 5274392.436711622 176.0 220.72724643429328
517943.4759614623 5267179.822768295 6.0 8.116356534286533
516774.0512986561 5270288.32169119 62.0 64.12066527915424
512490.65946272376 5262211.510217594 259.0 245.38900832742635
520431.2319328926 5262930.982780965 16.0 45.142334228352944
514718.2897659493 5270008.844405694 94.0 92.68798571415631
511272.06637951353 5272753.777793686 268.0 315.52275280518546
509644.0107165478 5266407.50776128 159.0 260.59709082450826
518904.76571769896 5273799.642664862 47.0 45.90353548131007
519711.6202572503 5267919.528261309 6.0 16.30937721555541
505283.93260581716 5274258.495160864 786.0 779.4120589217208
520765.6113366086 5259457.806079412 36.0 45.94967357662279
506022.81436161546 5270292.16637222 357.0 311.9717952722789
506268.749206138 5270640.205587631 268.0 323.16715048436294
511299.6306852161 5261077.312800725 71.0 117.87798294451527
519215.8256180178 5270528.408455723 61.0 61.406629205373115
519558.8612900617 5271855.569690146 134.0 134.35208262591073
517987.57668737747 5264516.429574951 181.0 159.31350041905944
520598.0991574426 5271733.96424654 46.0 52.28505506651235
509690.7005913266 5271317.627622363 824.0 754.2232249086292
515834.6430500034 5263402.611643049 717.0 600.8065046403138
510618.0723794166 5267150.267915178 301.0 302.3289526445252
507452.18140258896 5269037.680745946 506.0 445.8738038554296
513190.5989310725 5273718.2924340945 240.0 153.12650811248707
507739.0526875192 5264299.560562108 77.0 63.62293770878706
510193.94773269456 5260419.379411325 167.0 142.14853500743263
516398.00546409935 5266116.320346141 237.0 206.8600157425164
507284.2907315254 5261528.385709897 166.0 170.59033982740166
509836.9291350822 5274442.094124454 266.0 308.87768241147813
506087.63649783965 5261259.7534579 179.0 186.99384343451484
508667.71605869016 5274525.28739833 491.0 456.1079559762083
506964.98079250753 5259302.242029072 284.0 240.26758784907653
505626.3223027635 5260412.340070964 183.0 209.95574555868325
506855.0630130918 5267614.239330332 373.0 356.48342252786244
515318.67384440376 5271607.24378046 227.0 156.31878794093942
514717.700423748 5264636.575030703 458.0 490.2866654258714
520110.78278366145 5258644.885634794 163.0 139.87700077790836
511778.1565556654 5272968.172753339 249.0 276.9506753137899
510268.7722979825 5263979.58385054 36.0 47.204646397915624
511957.8430020743 5267404.443865042 149.0 132.66655069704984
513885.2781291456 5265786.634422395 219.0 146.03135241903152
517829.9862239546 5264848.514804687 168.0 175.77208565696992
514642.71952237416 5272713.1126268655 87.0 110.22220380196829
508298.4599914488 5272030.2538001705 736.0 716.5395942917429
514648.77589862165 5260142.7298681615 229.0 255.58640181610176
513918.1745317874 5266643.477558381 5.0 85.477582825118
506984.8597264988 5262321.201635242 76.0 115.95591128892403
509644.04275042866 5265156.144319211 76.0 67.28430113808786
512067.56843143655 5263967.10775598 228.0 200.10431572303398
515116.686469937 5267468.352415799 0.0 30.702701059993608
506954.49988997576 5267903.910679558 360.0 351.10145154401613
512366.29681912146 5259874.074686708 180.0 207.58618264027106
514023.3738752442 5270308.103299386 143.0 145.66890256363868
520417.27317493997 5274520.4185091965 33.0 47.51309003286854
521997.9155111748 5260157.997465348 0.0 6.552135119634673
507992.83565475134 5265279.358117511 208.0 149.09078651325788
507353.9426529666 5260191.480427933 305.0 312.01014592468596
512077.87551956496 5264513.684294484 178.0 180.0502579157558
522345.9143137429 5269694.190038981 34.0 61.244842680521344
506378.9133762807 5262070.109692631 240.0 108.02298475495928
507102.44490866974 5267005.585271593 369.0 421.63788467455765
510159.7471632593 5265913.429794587 159.0 154.78021579254198
510358.2003814948 5274844.502973078 189.0 218.90605859484617
520458.6014381278 5264629.152287619 41.0 22.332751220558688
509068.7014457346 5271106.365023255 785.0 744.6324960695197
522476.3549861178 5268843.417208761 127.0 131.16381975355722
506116.0312573959 5270252.326126094 328.0 312.31359218625494
522251.49022585247 5259316.619293638 0.0 1.0401330553617751
523352.53405030305 5272113.115941495 99.0 119.75418508806698
512416.077634627 5264748.018851457 167.0 195.97601161918575
514545.0981829437 5268426.312782958 7.0 25.98443747084637
521493.37334969506 5267378.391259339 10.0 24.733049528591174
519355.462391305 5260594.944594892 168.0 165.05396568126773
508058.1531077621 5261909.564109517 104.0 104.31305744284865
520519.88937293214 5261307.55100241 29.0 33.21675495728201
521574.55648851756 5261737.105648701 0.0 1.4379551852665073
516666.8968924803 5264966.505313889 442.0 392.60669773408915
505251.5406591761 5263787.826735342 25.0 28.989353496503472
519100.3665789355 5271130.097904889 57.0 93.59592665161898
514771.3154142391 5259049.902882102 222.0 306.8998475753678
518080.2456980402 5260117.560005181 226.0 258.8506373846746
517958.4718013611 5271669.974626451 199.0 156.09254554026546
509561.78566745296 5274267.308951438 338.0 308.45454200941884
515986.4191048221 5261323.948571972 744.0 727.414516901338
520383.0869433568 5273770.629480312 53.0 53.26490523215749
509077.93494152685 5261106.059555377 168.0 165.13470550310296
518658.3413410341 5263834.765219543 111.0 133.03309293523748
522665.44984017505 5259501.02725988 0.0 0.0758106247443314
517326.323288441 5274788.625680526 118.0 54.62465172048066
508077.64720096224 5261903.872549753 104.0 104.31413349079259
508166.16273898986 5269795.76693784 517.0 571.7005851170688
519150.9129786363 5262766.420819815 107.0 98.87621020238787
506840.95618257497 5265272.514862118 157.0 187.78070277644835
516630.0827087125 5271460.036551443 247.0 202.61879898016028
508912.8566493391 5265000.107618147 42.0 84.05192829056362
514147.60104033764 5259970.339213683 140.0 248.19076999127324
512664.74004560144 5272986.330748559 236.0 226.20949330627943
518946.0014486987 5263137.7755505685 92.0 105.39766795184187
513332.35418899957 5274255.049394472 106.0 129.44067977031943
512692.6251810191 5262568.27641308 262.0 269.064144766576
519227.21200644365 5265301.561655452 39.0 33.73008244864871
505881.0371768369 5265333.749493356 181.0 165.54778192217694
521995.81748832914 5268537.949384583 59.0 68.64096549370694
516124.9682035 5266424.148459092 143.0 181.08907510386922
508683.5027643315 5273095.888330669 617.0 650.6886154862949
